-0.944 20.73 -12.605 1.55
-1.143 19.976 -11.39 1.7
-0.115 18.874 -11.198 1.7
0.636 18.537 -12.109 1.52
-0.092 18.301 -10.002 1.55
0.857 17.247 -9.681 1.7
0.742 16.027 -10.599 1.7
1.739 15.382 -10.909 1.52
0.674 16.808 -8.22 1.7
1.792 15.841 -7.82 1.7
-0.701 16.178 -8.039 1.7
1.785 15.496 -6.344 1.7
-0.472 15.712 -11.039 1.55
-0.674 14.554 -11.907 1.7
0.053 14.67 -13.251 1.7
0.731 13.734 -13.679 1.52
-2.176 14.305 -12.154 1.7
-2.363 13.192 -13.185 1.7
-2.853 13.915 -10.847 1.7
-0.077 15.812 -13.916 1.55
0.589 15.993 -15.2 1.7
2.107 16.029 -15.05 1.7
2.836 15.504 -15.89 1.52
0.12 17.283 -15.873 1.7
0.796 17.548 -17.217 1.7
0.557 16.435 -18.226 1.7
-0.621 16.156 -18.546 1.52
1.547 15.837 -18.703 1.52
2.58 16.642 -13.972 1.55
4.011 16.748 -13.743 1.7
4.687 15.497 -13.194 1.7
5.812 15.182 -13.581 1.52
4.307 17.921 -12.799 1.7
4.513 19.253 -13.498 1.7
3.406 19.575 -14.475 1.7
2.228 19.414 -14.167 1.52
3.78 20.032 -15.666 1.55
4.009 14.772 -12.31 1.55
4.635 13.613 -11.69 1.7
4.163 12.232 -12.107 1.7
4.852 11.243 -11.846 1.52
4.531 13.739 -10.17 1.7
5.179 15.31 -9.511 1.8
2.996 12.157 -12.736 1.55
2.458 10.877 -13.177 1.7
2.574 10.732 -14.692 1.7
3.05 9.71 -15.188 1.52
0.998 10.73 -12.733 1.7
0.108 9.364 -13.555 1.8
2.144 11.753 -15.428 1.55
2.233 11.708 -16.884 1.7
3.696 11.881 -17.273 1.7
4.156 11.341 -18.28 1.52
1.355 12.798 -17.503 1.7
-0.106 12.599 -17.247 1.7
-1.066 13.503 -17.648 1.55
-0.77 11.596 -16.625 1.7
-2.258 13.065 -17.283 1.7
-2.106 11.91 -16.661 1.55
4.422 12.636 -16.455 1.55
5.851 12.858 -16.645 1.7
6.507 12.493 -15.313 1.7
5.812 12.118 -14.368 1.52
6.132 14.318 -17.011 1.7
5.568 14.63 -18.276 1.52
7.829 12.595 -15.226 1.55
8.528 12.239 -13.993 1.7
9.018 13.438 -13.184 1.7
9.581 14.382 -13.735 1.52
9.725 11.315 -14.3 1.7
9.209 9.946 -14.758 1.7
10.626 11.177 -13.074 1.7
10.304 8.98 -15.166 1.7
8.798 13.391 -11.872 1.55
9.226 14.47 -10.983 1.7
10.42 14.111 -10.124 1.7
10.554 12.979 -9.659 1.52
8.111 14.883 -10.019 1.7
6.716 15.768 -10.752 1.8
11.268 15.07 -9.933 1.55
12.412 14.948 -9.037 1.7
11.885 15.159 -7.651 1.7
10.741 15.595 -7.492 1.52
13.468 15.999 -9.39 1.7
12.966 17.298 -9.109 1.52
12.687 14.87 -6.637 1.55
12.259 15.066 -5.256 1.7
11.86 16.527 -5.027 1.7
10.844 16.813 -4.397 1.52
13.396 14.678 -4.303 1.7
13.213 14.919 -2.801 1.7
12.081 14.061 -2.264 1.7
14.514 14.591 -2.078 1.7
12.658 17.448 -5.556 1.55
12.397 18.879 -5.395 1.7
11.081 19.279 -6.057 1.7
10.375 20.171 -5.583 1.52
13.567 19.667 -5.983 1.7
14.896 19.113 -5.525 1.7
15.262 19.156 -4.179 1.7
15.756 18.478 -6.422 1.7
16.446 18.576 -3.734 1.7
16.946 17.893 -5.987 1.7
17.282 17.946 -4.642 1.7
18.45 17.36 -4.201 1.52
10.757 18.603 -7.155 1.55
9.527 18.852 -7.894 1.7
8.34 18.407 -7.04 1.7
7.304 19.072 -6.984 1.52
9.553 18.052 -9.196 1.7
9.106 18.815 -10.42 1.7
10.061 18.621 -11.581 1.7
10.564 17.521 -11.803 1.52
10.311 19.689 -12.331 1.55
8.502 17.269 -6.374 1.55
7.451 16.734 -5.523 1.7
7.216 17.652 -4.323 1.7
6.078 17.821 -3.879 1.52
7.836 15.328 -5.042 1.7
6.72 14.312 -4.781 1.7
5.92 14.092 -6.05 1.7
7.321 12.993 -4.319 1.7
8.289 18.25 -3.803 1.55
8.172 19.139 -2.644 1.7
7.37 20.407 -2.924 1.7
7.003 21.133 -1.997 1.52
9.556 19.529 -2.107 1.7
10.355 18.377 -1.524 1.7
11.635 18.837 -0.845 1.7
12.652 18.993 -1.55 1.52
11.623 19.056 0.388 1.52
7.1 20.679 -4.196 1.55
6.315 21.854 -4.559 1.7
4.874 21.663 -4.1 1.7
4.099 22.613 -4.063 1.52
6.322 22.063 -6.073 1.7
7.58 22.743 -6.572 1.7
7.901 22.673 -7.76 1.52
8.289 23.42 -5.678 1.55
4.508 20.429 -3.758 1.55
3.145 20.165 -3.33 1.7
2.987 19.954 -1.83 1.7
1.931 19.523 -1.362 1.52
2.581 18.985 -4.126 1.7
2.628 19.248 -5.617 1.7
1.742 20.145 -6.221 1.7
3.591 18.641 -6.415 1.7
1.825 20.426 -7.598 1.7
3.681 18.914 -7.78 1.7
2.799 19.804 -8.363 1.7
2.906 20.052 -9.717 1.52
4.034 20.273 -1.076 1.55
3.975 20.166 0.378 1.7
3.376 21.474 0.869 1.7
3.44 22.484 0.161 1.52
5.365 20.041 0.99 1.7
6.309 18.544 0.6 1.8
2.812 21.465 2.073 1.55
2.228 22.675 2.644 1.7
3.332 23.582 3.182 1.7
4.493 23.124 3.279 1.52
1.266 22.34 3.795 1.7
0.021 21.599 3.336 1.7
-0.564 21.915 2.297 1.52
-0.406 20.621 4.127 1.55
3.016 24.742 3.519 1.52
16.492 9.449 -4.768 1.55
15.024 9.193 -4.825 1.7
14.675 8.498 -6.14 1.7
15.366 8.658 -7.151 1.52
14.249 10.513 -4.717 1.7
12.819 10.345 -4.273 1.7
12.513 10.139 -2.931 1.7
11.781 10.385 -5.195 1.7
11.189 9.977 -2.514 1.7
10.458 10.225 -4.79 1.7
10.161 10.021 -3.447 1.7
13.595 7.728 -6.115 1.55
13.143 6.994 -7.286 1.7
12.933 7.911 -8.491 1.7
12.535 9.067 -8.348 1.52
11.828 6.249 -6.977 1.7
10.719 7.249 -6.686 1.7
11.459 5.345 -8.129 1.7
13.22 7.384 -9.676 1.55
13.064 8.124 -10.921 1.7
12.031 7.367 -11.745 1.7
12.356 6.75 -12.761 1.52
14.403 8.184 -11.666 1.7
14.342 9.044 -12.914 1.7
14.023 10.233 -12.849 1.52
14.654 8.446 -14.06 1.55
10.782 7.416 -11.295 1.55
9.701 6.711 -11.97 1.7
8.444 7.565 -12.08 1.7
8.324 8.611 -11.445 1.52
9.342 5.437 -11.196 1.7
10.472 4.434 -10.978 1.7
10.803 3.625 -12.218 1.7
9.911 3.188 -12.946 1.52
12.092 3.4 -12.452 1.55
7.539 7.135 -12.91 1.55
6.232 7.782 -13.04 1.7
5.43 7.384 -11.801 1.7
5.211 6.195 -11.541 1.52
5.496 7.281 -14.295 1.7
6.114 7.873 -15.573 1.7
5.79 9.128 -16.049 1.55
7.016 7.345 -16.441 1.7
6.48 9.333 -17.161 1.7
7.217 8.277 -17.407 1.55
5.005 8.381 -11.026 1.55
4.255 8.113 -9.803 1.7
2.798 8.495 -9.997 1.7
2.475 9.669 -10.183 1.52
4.859 8.905 -8.643 1.7
6.299 8.526 -8.279 1.7
6.862 9.51 -7.259 1.7
6.321 7.117 -7.725 1.7
1.917 7.501 -9.936 1.55
0.498 7.748 -10.152 1.7
-0.439 7.222 -9.069 1.7
-0.121 6.275 -8.348 1.52
0.078 7.144 -11.494 1.7
1.056 7.675 -12.939 1.8
-1.605 7.853 -8.98 1.55
-2.621 7.45 -8.025 1.7
-2.197 7.392 -6.575 1.7
-1.582 8.326 -6.057 1.52
-2.527 6.289 -5.91 1.55
-2.185 6.149 -4.503 1.7
-0.674 6.116 -4.302 1.7
-0.188 6.39 -3.209 1.52
-2.829 4.891 -3.916 1.7
-2.402 3.728 -4.597 1.52
0.068 5.779 -5.351 1.55
1.52 5.74 -5.243 1.7
2.094 7.142 -5.167 1.7
3.094 7.373 -4.493 1.52
2.13 5.001 -6.429 1.7
1.61 3.611 -6.588 1.7
1.649 2.687 -5.567 1.55
1.031 2.989 -7.64 1.7
1.119 1.552 -5.983 1.7
0.738 1.709 -7.237 1.55
1.46 8.073 -5.871 1.55
1.907 9.454 -5.876 1.7
1.573 10.063 -4.518 1.7
2.332 10.868 -3.973 1.52
1.201 10.224 -6.998 1.7
1.423 11.738 -7.055 1.7
2.912 12.032 -7.154 1.7
0.675 12.315 -8.263 1.7
0.435 9.662 -3.963 1.55
0.019 10.18 -2.673 1.7
0.958 9.722 -1.558 1.7
1.323 10.509 -0.678 1.52
-1.429 9.756 -2.359 1.7
-1.788 10.127 -0.937 1.7
-2.369 10.438 -3.331 1.7
1.361 8.456 -1.594 1.55
2.268 7.949 -0.568 1.7
3.619 8.646 -0.698 1.7
4.26 8.969 0.303 1.52
2.426 6.428 -0.696 1.7
3.471 5.813 0.227 1.7
3.375 6.315 1.658 1.7
2.327 6.093 2.313 1.52
4.359 6.935 2.125 1.52
4.048 8.887 -1.933 1.55
5.317 9.567 -2.164 1.7
5.268 10.939 -1.489 1.7
6.221 11.34 -0.821 1.52
5.572 9.722 -3.666 1.7
4.155 11.653 -1.659 1.55
4 12.972 -1.045 1.7
3.988 12.861 0.475 1.7
4.623 13.657 1.174 1.52
2.699 13.649 -1.505 1.7
2.635 14.214 -2.926 1.7
1.278 14.874 -3.142 1.7
3.742 15.229 -3.137 1.7
3.26 11.871 0.982 1.55
3.161 11.652 2.42 1.7
4.562 11.533 3.013 1.7
4.889 12.172 4.017 1.52
2.355 10.372 2.701 1.7
2.151 10.095 4.172 1.7
1.274 10.866 4.929 1.7
2.883 9.103 4.82 1.7
1.132 10.659 6.304 1.7
2.755 8.887 6.192 1.7
1.88 9.668 6.927 1.7
1.762 9.475 8.281 1.52
5.391 10.718 2.368 1.55
6.767 10.483 2.799 1.7
7.632 11.733 2.682 1.7
8.309 12.133 3.63 1.52
7.384 9.366 1.947 1.7
8.882 9.085 2.09 1.7
9.195 8.719 3.527 1.7
9.288 7.953 1.146 1.7
7.607 12.343 1.505 1.55
8.414 13.524 1.239 1.7
8.091 14.742 2.092 1.7
8.994 15.402 2.594 1.52
8.311 13.947 -0.247 1.7
8.861 15.359 -0.433 1.7
9.085 12.976 -1.117 1.7
6.809 15.032 2.262 1.55
6.414 16.217 3.002 1.7
6.524 16.172 4.519 1.7
6.576 17.219 5.165 1.52
5.012 16.628 2.571 1.7
4.96 17.046 0.792 1.8
6.581 14.972 5.088 1.55
6.703 14.864 6.533 1.7
5.626 15.598 7.314 1.7
4.452 15.583 6.94 1.52
6.034 16.249 8.401 1.55
5.114 16.981 9.265 1.7
4.394 18.146 8.588 1.7
3.376 18.624 9.091 1.52
5.859 17.509 10.497 1.7
6.407 16.428 11.409 1.7
6.951 16.99 12.708 1.7
7.856 17.849 12.649 1.52
6.473 16.573 13.785 1.52
4.919 18.604 7.456 1.55
4.314 19.72 6.734 1.7
2.975 19.351 6.116 1.7
2.112 20.206 5.921 1.52
5.244 20.203 5.621 1.7
6.579 20.747 6.099 1.7
7.492 21.031 4.918 1.7
8.041 19.808 4.339 1.55
8.776 19.769 3.231 1.7
9.051 20.888 2.572 1.55
9.242 18.609 2.783 1.55
2.798 18.075 5.804 1.55
1.557 17.667 5.183 1.7
1.643 18.094 3.731 1.7
2.691 18.574 3.283 1.52
0.547 17.961 2.999 1.55
0.566 18.308 1.587 1.7
-0.835 18.5 1.041 1.7
-1.827 18.388 1.765 1.52
1.254 17.181 0.812 1.7
0.536 15.859 0.91 1.7
-0.47 15.532 0.009 1.7
0.847 14.954 1.924 1.7
-1.161 14.327 0.111 1.7
0.164 13.746 2.037 1.7
-0.843 13.431 1.13 1.7
-0.91 18.803 -0.249 1.55
-2.194 18.959 -0.9 1.7
-2.169 18.157 -2.196 1.7
-1.208 18.227 -2.964 1.52
-2.501 20.442 -1.159 1.7
-1.466 21.153 -1.981 1.7
-1.518 21.12 -3.375 1.7
-0.435 21.858 -1.366 1.7
-0.556 21.78 -4.139 1.7
0.533 22.52 -2.121 1.7
0.471 22.481 -3.51 1.7
-3.212 17.364 -2.406 1.55
-3.329 16.544 -3.606 1.7
-4.531 17.047 -4.392 1.7
-5.677 16.853 -3.981 1.52
-3.532 15.07 -3.237 1.7
-3.657 14.17 -4.446 1.7
-2.583 13.994 -5.319 1.7
-4.866 13.548 -4.756 1.7
-2.712 13.228 -6.476 1.7
-5.004 12.778 -5.91 1.7
-3.926 12.625 -6.765 1.7
-4.064 11.886 -7.918 1.52
-4.268 17.694 -5.521 1.55
-5.337 18.236 -6.346 1.7
-5.157 17.864 -7.809 1.7
-4.555 18.603 -8.582 1.52
-5.392 19.757 -6.213 1.7
-4.092 20.304 -6.464 1.52
-5.836 20.138 -4.81 1.7
-5.689 16.702 -8.205 1.55
-5.589 16.216 -9.583 1.7
-6.407 17.028 -10.578 1.7
-6.135 17.009 -11.778 1.52
-6.076 14.776 -9.468 1.7
-7.115 14.873 -8.394 1.7
-6.432 15.747 -7.364 1.7
-7.406 17.746 -10.077 1.55
-8.265 18.544 -10.94 1.7
-7.594 19.834 -11.399 1.7
-7.417 20.052 -12.599 1.52
-9.58 18.858 -10.217 1.7
-10.582 19.648 -11.047 1.7
-11.97 19.626 -10.417 1.7
-11.97 20.22 -9.018 1.7
-13.313 20.124 -8.381 1.55
-7.218 20.677 -10.44 1.55
-6.572 21.956 -10.729 1.7
-7.367 22.772 -11.744 1.7
-6.806 23.113 -12.807 1.52
-5.133 21.76 -11.264 1.7
-5.157 20.917 -12.423 1.52
-4.249 21.128 -10.197 1.7
-8.548 23.065 -11.46 1.52
-7.55 17.541 14.95 1.55
-7.321 17.338 13.528 1.7
-7.791 15.985 13.025 1.7
-8.502 15.263 13.724 1.52
-7.386 15.637 11.808 1.55
-7.777 14.367 11.212 1.7
-7.15 13.183 11.944 1.7
-7.695 12.079 11.933 1.52
-7.391 14.323 9.711 1.7
-8.007 13.092 9.044 1.7
-5.88 14.308 9.561 1.7
-7.8 13.045 7.54 1.7
-5.998 13.403 12.571 1.55
-5.344 12.33 13.307 1.7
-6.181 12.023 14.549 1.7
-6.455 10.86 14.862 1.52
-3.916 12.728 13.742 1.7
-3.274 11.587 14.525 1.7
-3.074 13.057 12.516 1.7
-6.594 13.074 15.252 1.55
-7.414 12.907 16.449 1.7
-8.75 12.273 16.089 1.7
-9.238 11.373 16.775 1.52
-7.697 14.257 17.116 1.7
-6.533 14.908 17.837 1.7
-5.428 15.364 16.911 1.7
-5.734 15.933 15.841 1.52
-4.249 15.169 17.263 1.52
-9.341 12.761 15.006 1.55
-10.638 12.282 14.554 1.7
-10.624 10.894 13.919 1.7
-11.541 10.103 14.14 1.52
-11.23 13.276 13.55 1.7
-11.856 14.509 14.181 1.7
-13.04 14.169 15.074 1.7
-14.087 13.724 14.597 1.52
-12.879 14.381 16.376 1.55
-9.561 10.561 13.18 1.55
-9.578 9.292 12.425 1.7
-8.472 8.276 12.787 1.7
-8.443 7.155 12.264 1.52
-9.478 9.58 10.934 1.7
-10.984 10.461 10.283 1.8
-7.514 8.621 13.671 1.55
-6.506 7.645 14.063 1.7
-6.801 7.171 15.483 1.7
-6.442 6.06 15.853 1.52
-5.084 8.214 13.946 1.7
-4.543 8.403 12.213 1.8
-7.473 8.009 16.27 1.55
-7.847 7.631 17.635 1.7
-9.126 6.798 17.549 1.7
-9.426 5.988 18.427 1.52
-8.113 8.868 18.506 1.7
-6.905 9.72 18.747 1.7
-5.617 9.244 18.626 1.55
-6.791 11.012 19.141 1.7
-4.763 10.204 18.934 1.7
-5.45 11.287 19.251 1.55
-9.884 7.021 16.483 1.55
-11.128 6.302 16.239 1.7
-11.222 6.077 14.739 1.7
-10.589 6.79 13.968 1.52
-12.33 7.121 16.717 1.7
-12.258 7.364 18.111 1.52
-12.01 5.09 14.326 1.55
-12.162 4.786 12.91 1.7
-13.054 5.8 12.209 1.7
-13.983 6.353 12.803 1.52
-12.794 3.391 12.696 1.7
-12.032 2.344 13.508 1.7
-12.777 3.028 11.215 1.7
-12.616 0.941 13.436 1.7
-12.755 6.059 10.944 1.55
-13.578 6.96 10.161 1.7
-14.024 6.191 8.937 1.7
-13.207 5.595 8.242 1.52
-12.807 8.206 9.73 1.7
-12.528 9.411 11.065 1.8
-15.328 6.181 8.697 1.55
-15.889 5.499 7.541 1.7
-15.533 6.354 6.333 1.7
-15.021 7.457 6.49 1.52
-17.408 5.424 7.677 1.7
-17.964 6.724 7.621 1.52
-15.796 5.857 5.127 1.55
-15.499 6.638 3.932 1.7
-16.264 7.954 3.968 1.7
-15.774 8.979 3.496 1.52
-15.887 5.862 2.666 1.7
-16.258 6.725 1.456 1.7
-15.707 6.106 0.19 1.7
-17.776 6.886 1.378 1.7
-17.464 7.912 4.541 1.55
-18.328 9.082 4.633 1.7
-17.75 10.136 5.568 1.7
-17.853 11.335 5.298 1.52
-19.718 8.641 5.094 1.7
-20.296 7.605 4.13 1.7
-20.906 8.022 2.943 1.7
-20.198 6.24 4.425 1.7
-21.401 7.074 2.04 1.7
-20.686 5.292 3.518 1.7
-21.284 5.709 2.324 1.7
-21.746 4.789 1.435 1.52
-17.145 9.686 6.664 1.55
-16.53 10.601 7.623 1.7
-15.254 11.172 7.004 1.7
-14.917 12.339 7.208 1.52
-16.205 9.865 8.93 1.7
-17.435 9.445 9.718 1.7
-17.121 8.493 10.862 1.7
-16.564 7.418 10.653 1.52
-17.492 8.883 12.078 1.55
-14.553 10.343 6.238 1.55
-13.319 10.768 5.578 1.7
-13.599 11.845 4.524 1.7
-12.783 12.744 4.291 1.52
-12.632 9.561 4.923 1.7
-11.99 8.54 5.872 1.7
-11.532 7.304 5.096 1.7
-10.814 9.184 6.58 1.7
-14.762 11.757 3.894 1.55
-15.14 12.716 2.866 1.7
-15.178 14.141 3.415 1.7
-15.063 15.109 2.664 1.52
-16.5 12.324 2.283 1.7
-17.006 13.214 1.159 1.7
-18.212 12.608 0.459 1.7
-18.946 11.835 1.109 1.52
-18.432 12.908 -0.733 1.52
-15.321 14.269 4.732 1.55
-15.362 15.585 5.357 1.7
-14.047 16.332 5.162 1.7
-13.994 17.552 5.296 1.52
-15.67 15.465 6.857 1.7
-17.093 15.012 7.126 1.7
-18.027 15.459 6.463 1.52
-17.268 14.131 8.107 1.55
-12.989 15.597 4.834 1.55
-11.674 16.199 4.631 1.7
-11.325 16.451 3.174 1.7
-10.219 16.898 2.868 1.52
-10.604 15.318 5.272 1.7
-10.748 15.231 6.766 1.7
-10.277 16.254 7.589 1.7
-11.402 14.154 7.361 1.7
-10.457 16.205 8.967 1.7
-11.589 14.097 8.736 1.7
-11.116 15.126 9.533 1.7
-11.313 15.081 10.893 1.52
-12.258 16.164 2.274 1.55
-12.024 16.381 0.852 1.7
-12.238 17.845 0.485 1.7
-12.913 18.581 1.204 1.52
-12.982 15.544 0.005 1.7
-12.897 13.737 0.195 1.8
-11.665 18.25 -0.643 1.55
-11.806 19.613 -1.148 1.7
-13.248 19.833 -1.588 1.7
-13.846 20.856 -1.192 1.52
-10.88 19.84 -2.345 1.7
-9.426 19.996 -1.942 1.7
-8.529 19.966 -2.789 1.52
-9.186 20.176 -0.648 1.55
-13.759 18.975 -2.337 1.52
6.241 2.453 19.523 1.55
6.175 2.442 18.031 1.7
5.568 3.74 17.511 1.7
4.912 4.473 18.252 1.52
5.348 1.247 17.553 1.7
5.996 -0.084 17.828 1.7
7.074 -0.517 17.064 1.7
5.544 -0.892 18.868 1.7
7.699 -1.738 17.329 1.7
6.16 -2.115 19.144 1.7
7.239 -2.538 18.373 1.7
5.791 4.018 16.231 1.55
5.278 5.232 15.608 1.7
3.875 5.002 15.031 1.7
3.664 5.069 13.816 1.52
6.214 5.702 14.479 1.7
7.5 6.207 15.066 1.7
6.501 4.562 13.516 1.7
2.916 4.749 15.914 1.55
1.531 4.488 15.518 1.7
0.907 5.565 14.625 1.7
0.326 5.258 13.583 1.52
0.667 4.282 16.768 1.7
1.135 3.109 17.612 1.7
1.321 2.002 17.106 1.52
1.32 3.343 18.908 1.55
1.033 6.824 15.026 1.55
0.466 7.929 14.262 1.7
1.034 8.062 12.842 1.7
0.3 8.388 11.908 1.52
0.656 9.234 15.045 1.7
0.186 10.5 14.341 1.7
1.187 11.013 13.324 1.7
2.368 11.178 13.629 1.52
0.717 11.276 12.11 1.55
2.328 7.801 12.676 1.55
2.963 7.906 11.359 1.7
2.441 6.825 10.418 1.7
2.281 7.063 9.219 1.52
4.486 7.79 11.488 1.7
5.224 7.942 10.194 1.7
5.083 9.045 9.379 1.55
6.131 7.139 9.586 1.7
5.87 8.915 8.326 1.7
6.518 7.768 8.428 1.55
2.18 5.639 10.964 1.55
1.663 4.537 10.162 1.7
0.205 4.799 9.793 1.7
-0.187 4.635 8.637 1.52
1.785 3.213 10.929 1.7
3.199 2.876 11.408 1.7
3.216 1.518 12.115 1.7
4.141 2.86 10.218 1.7
-0.598 5.215 10.769 1.55
-2.005 5.5 10.504 1.7
-2.135 6.545 9.396 1.7
-2.965 6.408 8.501 1.52
-2.712 6.003 11.77 1.7
-4.447 6.507 11.494 1.8
-1.308 7.584 9.455 1.55
-1.363 8.622 8.439 1.7
-1.203 8.095 7.025 1.7
-1.847 8.579 6.099 1.52
-0.332 7.108 6.855 1.55
-0.094 6.507 5.55 1.7
-1.408 5.929 5.002 1.7
-1.751 6.118 3.833 1.52
0.981 5.42 5.689 1.7
1.164 4.694 4.486 1.52
-2.157 5.245 5.859 1.55
-3.433 4.661 5.46 1.7
-4.471 5.739 5.197 1.7
-5.277 5.618 4.271 1.52
-3.95 3.727 6.546 1.7
-3.138 2.486 6.692 1.7
-3.39 1.349 5.959 1.55
-2.043 2.222 7.439 1.7
-2.485 0.434 6.248 1.7
-1.657 0.939 7.142 1.55
-4.45 6.779 6.028 1.55
-5.387 7.889 5.892 1.7
-5.315 8.529 4.52 1.7
-6.34 8.722 3.864 1.52
-5.106 8.971 6.928 1.7
-5.676 8.823 8.333 1.7
-5.263 10.035 9.158 1.7
-7.194 8.711 8.266 1.7
-4.108 8.868 4.082 1.55
-3.976 9.507 2.784 1.7
-4.334 8.586 1.621 1.7
-4.774 9.059 0.574 1.52
-2.567 10.131 2.594 1.7
-2.367 11.256 3.61 1.7
-1.495 9.084 2.735 1.7
-4.173 7.276 1.805 1.55
-4.537 6.325 0.759 1.7
-6.064 6.299 0.652 1.7
-6.631 6.278 -0.448 1.52
-3.992 4.927 1.091 1.7
-2.464 4.875 1.089 1.7
-1.884 3.524 1.484 1.7
-2.196 3.028 2.589 1.52
-1.099 2.961 0.69 1.52
-6.726 6.323 1.805 1.55
-8.185 6.321 1.857 1.7
-8.77 7.607 1.277 1.7
-9.763 7.566 0.553 1.52
-8.653 6.142 3.299 1.7
-8.164 8.746 1.607 1.55
-8.636 10.033 1.104 1.7
-8.504 10.077 -0.415 1.7
-9.338 10.666 -1.098 1.52
-7.843 11.184 1.741 1.7
-8.165 11.455 3.218 1.7
-7.169 12.445 3.803 1.7
-9.594 11.988 3.346 1.7
-7.452 9.458 -0.942 1.55
-7.263 9.428 -2.388 1.7
-8.488 8.753 -3.021 1.7
-9.053 9.251 -3.997 1.52
-5.997 8.649 -2.757 1.7
-6.003 8.251 -4.23 1.7
-5.685 9.197 -5.211 1.7
-6.337 6.945 -4.596 1.7
-5.725 8.84 -6.563 1.7
-6.385 6.59 -5.947 1.7
-6.083 7.538 -6.931 1.7
-6.146 7.195 -8.245 1.52
-8.9 7.624 -2.453 1.55
-10.053 6.887 -2.965 1.7
-11.379 7.621 -2.774 1.7
-12.175 7.737 -3.704 1.52
-10.149 5.514 -2.289 1.7
-9.017 4.517 -2.557 1.7
-9.263 3.245 -1.76 1.7
-8.936 4.208 -4.043 1.7
-11.622 8.111 -1.563 1.55
-12.874 8.799 -1.279 1.7
-13.044 10.13 -2.007 1.7
-14.102 10.396 -2.584 1.52
-13.043 9.045 0.245 1.7
-11.904 9.9 0.766 1.7
-14.373 9.721 0.519 1.7
-12.003 10.956 -1.994 1.55
-12.066 12.272 -2.613 1.7
-12.019 12.301 -4.133 1.7
-12.544 13.227 -4.756 1.52
-10.952 13.152 -2.057 1.7
-10.967 13.286 -0.242 1.8
-11.388 11.299 -4.73 1.55
-11.303 11.253 -6.176 1.7
-10.797 12.543 -6.796 1.7
-9.816 13.127 -6.334 1.52
-11.485 13 -7.837 1.55
-11.096 14.212 -8.555 1.7
-11.104 15.501 -7.735 1.7
-10.419 16.464 -8.091 1.52
-11.988 14.393 -9.79 1.7
-13.476 14.492 -9.484 1.7
-14.305 14.816 -10.716 1.7
-14.104 15.904 -11.298 1.52
-15.157 13.986 -11.102 1.52
-11.869 15.523 -6.647 1.55
-11.961 16.708 -5.804 1.7
-10.667 16.986 -5.053 1.7
-10.377 18.128 -4.709 1.52
-13.128 16.569 -4.821 1.7
-14.481 16.504 -5.506 1.7
-15.63 16.471 -4.511 1.7
-15.588 15.298 -3.643 1.55
-16.574 14.947 -2.823 1.7
-17.678 15.679 -2.762 1.55
-16.461 13.864 -2.066 1.55
-9.889 15.938 -4.804 1.55
-8.629 16.113 -4.109 1.7
-8.804 16.412 -2.637 1.7
-9.918 16.397 -2.113 1.52
-7.696 16.691 -1.963 1.55
-7.749 16.974 -0.537 1.7
-6.455 17.572 -0.022 1.7
-5.432 17.578 -0.707 1.52
-8.021 15.684 0.238 1.7
-6.956 14.633 0.056 1.7
-6.914 13.854 -1.103 1.7
-5.977 14.443 1.028 1.7
-5.913 12.902 -1.293 1.7
-4.968 13.493 0.85 1.7
-4.936 12.718 -0.316 1.7
-6.521 18.094 1.198 1.55
-5.353 18.639 1.861 1.7
-5.126 17.711 3.043 1.7
-6.082 17.279 3.693 1.52
-5.601 20.052 2.396 1.7
-5.498 21.128 1.357 1.7
-6.388 21.175 0.289 1.7
-4.505 22.097 1.445 1.7
-6.29 22.176 -0.677 1.7
-4.398 23.102 0.486 1.7
-5.293 23.141 -0.577 1.7
-3.87 17.374 3.294 1.55
-3.54 16.539 4.434 1.7
-2.66 17.357 5.365 1.7
-1.565 17.77 4.988 1.52
-2.785 15.276 4.017 1.7
-2.4 14.438 5.216 1.7
-3.379 13.836 6.007 1.7
-1.068 14.298 5.598 1.7
-3.042 13.12 7.15 1.7
-0.722 13.581 6.743 1.7
-1.715 12.999 7.512 1.7
-1.386 12.298 8.653 1.52
-3.145 17.59 6.582 1.55
-2.405 18.357 7.576 1.7
-2.467 17.615 8.912 1.7
-3.449 17.718 9.642 1.52
-3.016 19.76 7.769 1.7
-4.308 19.64 8.38 1.52
-3.17 20.465 6.43 1.7
-1.412 16.861 9.25 1.55
-1.39 16.113 10.512 1.7
-1.511 16.988 11.761 1.7
-1.522 16.479 12.883 1.52
-0.058 15.371 10.446 1.7
0.805 16.305 9.653 1.7
-0.124 16.738 8.545 1.7
-1.615 18.299 11.562 1.55
-1.726 19.233 12.679 1.7
-3.175 19.648 12.955 1.7
-4.116 19.056 12.423 1.52
-0.877 20.48 12.41 1.7
-0.683 21.374 13.628 1.7
-0.011 22.688 13.267 1.7
0.069 23.607 14.478 1.7
0.641 24.94 14.134 1.55
-3.331 20.673 13.79 1.55
-4.63 21.211 14.189 1.7
-5.247 20.335 15.279 1.7
-6.4 19.885 15.115 1.52
-5.606 21.311 12.987 1.7
-4.974 22.021 11.915 1.52
-6.875 22.06 13.387 1.7
-4.559 20.114 16.298 1.52
